ply
format ascii 1.0
comment VCGLIB generated
element vertex 1020
property float x
property float y
property float z
property float nx
property float ny
property float nz
property uchar red
property uchar green
property uchar blue
property uchar alpha
element face 0
property list uchar int vertex_indices
end_header
0.564453 0.447266 0.556863 0 0 0 87 58 35 255 
0.564453 0.449219 0.556863 0 0 0 85 57 36 255 
0.564453 0.451172 0.552941 0 0 0 84 56 36 255 
0.564453 0.453125 0.54902 0 0 0 84 57 34 255 
0.564453 0.455078 0.541176 0 0 0 84 58 38 255 
0.564453 0.457031 0.537255 0 0 0 86 55 37 255 
0.564453 0.458984 0.537255 0 0 0 86 59 37 255 
0.564453 0.460938 0.533333 0 0 0 81 60 41 255 
0.564453 0.462891 0.529412 0 0 0 79 57 41 255 
0.564453 0.464844 0.52549 0 0 0 79 58 41 255 
0.564453 0.466797 0.521569 0 0 0 79 62 44 255 
0.564453 0.46875 0.517647 0 0 0 79 59 45 255 
0.564453 0.470703 0.517647 0 0 0 80 56 40 255 
0.564453 0.472656 0.513726 0 0 0 79 60 38 255 
0.564453 0.474609 0.509804 0 0 0 81 61 42 255 
0.564453 0.476562 0.505882 0 0 0 86 62 43 255 
0.564453 0.478516 0.501961 0 0 0 87 61 41 255 
0.564453 0.480469 0.498039 0 0 0 89 62 42 255 
0.564453 0.482422 0.494118 0 0 0 90 64 45 255 
0.564453 0.484375 0.490196 0 0 0 93 58 46 255 
0.564453 0.486328 0.490196 0 0 0 95 56 40 255 
0.564453 0.488281 0.486275 0 0 0 93 59 41 255 
0.564453 0.490234 0.486275 0 0 0 95 58 45 255 
0.564453 0.492188 0.482353 0 0 0 93 60 45 255 
0.564453 0.494141 0.482353 0 0 0 92 56 49 255 
0.564453 0.496094 0.478431 0 0 0 89 53 41 255 
0.564453 0.498047 0.478431 0 0 0 87 55 37 255 
0.564453 0.5 0.478431 0 0 0 84 61 36 255 
0.564453 0.501953 0.478431 0 0 0 83 62 51 255 
0.564453 0.503906 0.478431 0 0 0 83 64 53 255 
0.564453 0.505859 0.478431 0 0 0 83 67 52 255 
0.564453 0.507812 0.478431 0 0 0 87 72 57 255 
0.564453 0.509766 0.478431 0 0 0 93 65 60 255 
0.564453 0.511719 0.478431 0 0 0 97 59 51 255 
0.564453 0.513672 0.478431 0 0 0 96 64 46 255 
0.564453 0.515625 0.478431 0 0 0 95 62 48 255 
0.564453 0.517578 0.478431 0 0 0 98 60 49 255 
0.564453 0.519531 0.478431 0 0 0 95 60 43 255 
0.564453 0.521484 0.478431 0 0 0 90 59 41 255 
0.564453 0.523438 0.482353 0 0 0 89 60 46 255 
0.564453 0.525391 0.486275 0 0 0 91 64 43 255 
0.564453 0.527344 0.486275 0 0 0 90 62 42 255 
0.564453 0.529297 0.490196 0 0 0 94 60 38 255 
0.564453 0.53125 0.490196 0 0 0 90 61 39 255 
0.564453 0.533203 0.494118 0 0 0 89 63 44 255 
0.564453 0.535156 0.498039 0 0 0 85 56 44 255 
0.564453 0.537109 0.501961 0 0 0 83 58 36 255 
0.564453 0.539062 0.505882 0 0 0 78 57 38 255 
0.564453 0.541016 0.509804 0 0 0 79 53 40 255 
0.564453 0.542969 0.513726 0 0 0 78 54 40 255 
0.564453 0.544922 0.517647 0 0 0 74 58 36 255 
0.564453 0.546875 0.521569 0 0 0 73 56 39 255 
0.564453 0.548828 0.52549 0 0 0 74 53 37 255 
0.564453 0.550781 0.533333 0 0 0 73 55 31 255 
0.564453 0.552734 0.533333 0 0 0 73 57 33 255 
0.564453 0.554688 0.537255 0 0 0 76 58 37 255 
0.564453 0.556641 0.541176 0 0 0 79 58 37 255 
0.564453 0.558594 0.545098 0 0 0 82 60 36 255 
0.564453 0.560547 0.54902 0 0 0 83 59 40 255 
0.564453 0.5625 0.556863 0 0 0 88 59 40 255 
0.564453 0.564453 0.560784 0 0 0 90 60 39 255 
0.564453 0.566406 0.564706 0 0 0 90 56 41 255 
0.564453 0.568359 0.568627 0 0 0 89 55 36 255 
0.564453 0.570312 0.572549 0 0 0 86 55 33 255 
0.564453 0.572266 0.576471 0 0 0 84 55 31 255 
0.564453 0.574219 0.584314 0 0 0 78 50 28 255 
0.564453 0.576172 0.588235 0 0 0 79 54 32 255 
0.564453 0.578125 0.596078 0 0 0 76 52 28 255 
0.564453 0.580078 0.603922 0 0 0 74 50 28 255 
0.564453 0.582031 0.611765 0 0 0 77 47 27 255 
0.564453 0.583984 0.615686 0 0 0 73 49 17 255 
0.564453 0.585938 0.623529 0 0 0 69 49 28 255 
0.564453 0.587891 0.631373 0 0 0 70 47 20 255 
0.564453 0.589844 0.639216 0 0 0 64 147 23 255 
0.566406 0.419922 0.662745 0 0 0 69 46 20 255 
0.566406 0.421875 0.639216 0 0 0 62 47 19 255 
0.566406 0.423828 0.631373 0 0 0 64 48 26 255 
0.566406 0.425781 0.623529 0 0 0 69 52 32 255 
0.566406 0.427734 0.611765 0 0 0 73 51 33 255 
0.566406 0.429688 0.607843 0 0 0 77 52 33 255 
0.566406 0.431641 0.6 0 0 0 79 54 31 255 
0.566406 0.433594 0.596078 0 0 0 78 52 31 255 
0.566406 0.435547 0.588235 0 0 0 80 54 29 255 
0.566406 0.4375 0.584314 0 0 0 80 55 32 255 
0.566406 0.439453 0.576471 0 0 0 82 56 33 255 
0.566406 0.441406 0.572549 0 0 0 86 56 32 255 
0.566406 0.443359 0.568627 0 0 0 84 55 35 255 
0.566406 0.445312 0.560784 0 0 0 84 55 36 255 
0.566406 0.447266 0.556863 0 0 0 83 55 34 255 
0.566406 0.449219 0.556863 0 0 0 79 57 33 255 
0.566406 0.451172 0.552941 0 0 0 81 59 37 255 
0.566406 0.453125 0.545098 0 0 0 84 58 39 255 
0.566406 0.455078 0.541176 0 0 0 87 59 41 255 
0.566406 0.457031 0.537255 0 0 0 86 55 38 255 
0.566406 0.458984 0.537255 0 0 0 85 60 35 255 
0.566406 0.460938 0.533333 0 0 0 79 61 41 255 
0.566406 0.462891 0.529412 0 0 0 80 57 41 255 
0.566406 0.464844 0.52549 0 0 0 78 56 42 255 
0.566406 0.466797 0.521569 0 0 0 79 64 43 255 
0.566406 0.46875 0.521569 0 0 0 81 61 46 255 
0.566406 0.470703 0.517647 0 0 0 83 55 42 255 
0.566406 0.472656 0.513726 0 0 0 81 58 37 255 
0.566406 0.474609 0.509804 0 0 0 83 61 39 255 
0.566406 0.476562 0.505882 0 0 0 85 61 44 255 
0.566406 0.478516 0.501961 0 0 0 89 60 42 255 
0.566406 0.480469 0.498039 0 0 0 90 61 42 255 
0.566406 0.482422 0.494118 0 0 0 90 59 45 255 
0.566406 0.484375 0.490196 0 0 0 94 55 44 255 
0.566406 0.486328 0.490196 0 0 0 95 53 39 255 
0.566406 0.488281 0.486275 0 0 0 92 53 40 255 
0.566406 0.490234 0.486275 0 0 0 91 56 44 255 
0.566406 0.492188 0.482353 0 0 0 92 63 44 255 
0.566406 0.494141 0.478431 0 0 0 92 66 50 255 
0.566406 0.496094 0.478431 0 0 0 94 60 52 255 
0.566406 0.498047 0.478431 0 0 0 98 60 48 255 
0.566406 0.5 0.478431 0 0 0 94 65 46 255 
0.566406 0.501953 0.478431 0 0 0 91 70 48 255 
0.566406 0.503906 0.47451 0 0 0 92 69 56 255 
0.566406 0.505859 0.47451 0 0 0 95 69 54 255 
0.566406 0.507812 0.47451 0 0 0 96 69 54 255 
0.566406 0.509766 0.47451 0 0 0 96 66 54 255 
0.566406 0.511719 0.47451 0 0 0 96 58 52 255 
0.566406 0.513672 0.47451 0 0 0 94 62 43 255 
0.566406 0.515625 0.47451 0 0 0 92 50 50 255 
0.566406 0.517578 0.478431 0 0 0 94 53 39 255 
0.566406 0.519531 0.478431 0 0 0 87 62 36 255 
0.566406 0.521484 0.478431 0 0 0 88 60 48 255 
0.566406 0.523438 0.482353 0 0 0 95 60 41 255 
0.566406 0.525391 0.486275 0 0 0 86 64 43 255 
0.566406 0.527344 0.486275 0 0 0 92 63 42 255 
0.566406 0.529297 0.486275 0 0 0 98 62 40 255 
0.566406 0.53125 0.490196 0 0 0 92 61 39 255 
0.566406 0.533203 0.494118 0 0 0 88 63 40 255 
0.566406 0.535156 0.498039 0 0 0 86 58 42 255 
0.566406 0.537109 0.501961 0 0 0 84 58 37 255 
0.566406 0.539062 0.501961 0 0 0 82 57 40 255 
0.566406 0.541016 0.509804 0 0 0 80 53 42 255 
0.566406 0.542969 0.513726 0 0 0 79 54 41 255 
0.566406 0.544922 0.517647 0 0 0 75 57 36 255 
0.566406 0.546875 0.521569 0 0 0 73 57 41 255 
0.566406 0.548828 0.52549 0 0 0 73 56 38 255 
0.566406 0.550781 0.533333 0 0 0 75 56 33 255 
0.566406 0.552734 0.533333 0 0 0 75 58 35 255 
0.566406 0.554688 0.537255 0 0 0 75 58 38 255 
0.566406 0.556641 0.541176 0 0 0 76 58 35 255 
0.566406 0.558594 0.545098 0 0 0 79 60 34 255 
0.566406 0.560547 0.54902 0 0 0 82 59 37 255 
0.566406 0.5625 0.556863 0 0 0 85 58 34 255 
0.566406 0.564453 0.560784 0 0 0 85 59 36 255 
0.566406 0.566406 0.564706 0 0 0 88 55 39 255 
0.566406 0.568359 0.568627 0 0 0 89 55 34 255 
0.566406 0.570312 0.572549 0 0 0 83 54 35 255 
0.566406 0.572266 0.576471 0 0 0 82 56 34 255 
0.566406 0.574219 0.584314 0 0 0 80 50 28 255 
0.566406 0.576172 0.588235 0 0 0 78 51 31 255 
0.566406 0.578125 0.596078 0 0 0 75 53 22 255 
0.566406 0.580078 0.603922 0 0 0 71 51 32 255 
0.566406 0.582031 0.611765 0 0 0 76 47 32 255 
0.566406 0.583984 0.615686 0 0 0 75 48 18 255 
0.566406 0.585938 0.623529 0 0 0 67 48 27 255 
0.566406 0.587891 0.631373 0 0 0 69 46 21 255 
0.566406 0.589844 0.639216 0 0 0 64 238 24 255 
0.568359 0.421875 0.643137 0 0 0 66 46 18 255 
0.568359 0.423828 0.631373 0 0 0 65 48 24 255 
0.568359 0.425781 0.623529 0 0 0 72 52 31 255 
0.568359 0.427734 0.615686 0 0 0 71 51 36 255 
0.568359 0.429688 0.607843 0 0 0 77 52 31 255 
0.568359 0.431641 0.6 0 0 0 79 52 30 255 
0.568359 0.433594 0.596078 0 0 0 77 52 30 255 
0.568359 0.435547 0.588235 0 0 0 79 53 29 255 
0.568359 0.4375 0.584314 0 0 0 79 53 32 255 
0.568359 0.439453 0.580392 0 0 0 82 52 35 255 
0.568359 0.441406 0.572549 0 0 0 84 54 34 255 
0.568359 0.443359 0.568627 0 0 0 83 56 35 255 
0.568359 0.445312 0.560784 0 0 0 83 56 35 255 
0.568359 0.447266 0.556863 0 0 0 80 56 36 255 
0.568359 0.449219 0.556863 0 0 0 80 57 37 255 
0.568359 0.451172 0.552941 0 0 0 84 60 38 255 
0.568359 0.453125 0.545098 0 0 0 86 58 40 255 
0.568359 0.455078 0.541176 0 0 0 87 61 41 255 
0.568359 0.457031 0.537255 0 0 0 86 57 40 255 
0.568359 0.458984 0.537255 0 0 0 85 60 38 255 
0.568359 0.460938 0.533333 0 0 0 79 62 44 255 
0.568359 0.462891 0.529412 0 0 0 82 59 42 255 
0.568359 0.464844 0.52549 0 0 0 79 56 41 255 
0.568359 0.466797 0.521569 0 0 0 82 59 38 255 
0.568359 0.46875 0.521569 0 0 0 82 55 38 255 
0.568359 0.470703 0.517647 0 0 0 84 55 38 255 
0.568359 0.472656 0.513726 0 0 0 82 58 38 255 
0.568359 0.474609 0.509804 0 0 0 84 60 39 255 
0.568359 0.476562 0.501961 0 0 0 86 60 43 255 
0.568359 0.478516 0.501961 0 0 0 90 58 42 255 
0.568359 0.480469 0.498039 0 0 0 91 56 40 255 
0.568359 0.482422 0.494118 0 0 0 89 56 41 255 
0.568359 0.484375 0.490196 0 0 0 89 54 41 255 
0.568359 0.486328 0.490196 0 0 0 88 52 39 255 
0.568359 0.488281 0.486275 0 0 0 86 52 40 255 
0.568359 0.490234 0.486275 0 0 0 85 54 40 255 
0.568359 0.492188 0.482353 0 0 0 86 52 41 255 
0.568359 0.494141 0.482353 0 0 0 88 54 43 255 
0.568359 0.496094 0.478431 0 0 0 84 54 41 255 
0.568359 0.498047 0.478431 0 0 0 85 61 41 255 
0.568359 0.5 0.478431 0 0 0 85 63 48 255 
0.568359 0.501953 0.47451 0 0 0 91 63 50 255 
0.568359 0.503906 0.47451 0 0 0 94 63 50 255 
0.568359 0.505859 0.47451 0 0 0 94 63 50 255 
0.568359 0.507812 0.47451 0 0 0 94 59 50 255 
0.568359 0.509766 0.47451 0 0 0 94 56 51 255 
0.568359 0.511719 0.47451 0 0 0 92 59 50 255 
0.568359 0.513672 0.47451 0 0 0 89 60 47 255 
0.568359 0.515625 0.47451 0 0 0 90 50 49 255 
0.568359 0.517578 0.478431 0 0 0 92 54 41 255 
0.568359 0.519531 0.478431 0 0 0 85 67 41 255 
0.568359 0.521484 0.478431 0 0 0 86 60 54 255 
0.568359 0.523438 0.486275 0 0 0 94 56 41 255 
0.568359 0.525391 0.486275 0 0 0 84 54 36 255 
0.568359 0.527344 0.486275 0 0 0 85 60 34 255 
0.568359 0.529297 0.486275 0 0 0 85 62 37 255 
0.568359 0.53125 0.494118 0 0 0 84 60 40 255 
0.568359 0.533203 0.494118 0 0 0 89 61 40 255 
0.568359 0.535156 0.498039 0 0 0 87 57 45 255 
0.568359 0.537109 0.501961 0 0 0 87 58 36 255 
0.568359 0.539062 0.501961 0 0 0 82 56 39 255 
0.568359 0.541016 0.509804 0 0 0 81 54 42 255 
0.568359 0.542969 0.513726 0 0 0 78 54 40 255 
0.568359 0.544922 0.517647 0 0 0 74 57 36 255 
0.568359 0.546875 0.521569 0 0 0 71 57 41 255 
0.568359 0.548828 0.52549 0 0 0 73 56 39 255 
0.568359 0.550781 0.533333 0 0 0 76 56 34 255 
0.568359 0.552734 0.533333 0 0 0 76 58 35 255 
0.568359 0.554688 0.537255 0 0 0 75 59 39 255 
0.568359 0.556641 0.541176 0 0 0 76 57 38 255 
0.568359 0.558594 0.545098 0 0 0 79 57 33 255 
0.568359 0.560547 0.54902 0 0 0 82 58 33 255 
0.568359 0.5625 0.556863 0 0 0 84 57 30 255 
0.568359 0.564453 0.556863 0 0 0 83 58 35 255 
0.568359 0.566406 0.564706 0 0 0 86 56 41 255 
0.568359 0.568359 0.568627 0 0 0 89 57 31 255 
0.568359 0.570312 0.572549 0 0 0 83 53 36 255 
0.568359 0.572266 0.576471 0 0 0 83 53 31 255 
0.568359 0.574219 0.584314 0 0 0 80 47 27 255 
0.568359 0.576172 0.588235 0 0 0 77 50 26 255 
0.568359 0.578125 0.596078 0 0 0 69 52 30 255 
0.568359 0.580078 0.603922 0 0 0 71 52 32 255 
0.568359 0.582031 0.611765 0 0 0 75 48 21 255 
0.568359 0.583984 0.619608 0 0 0 72 50 24 255 
0.568359 0.585938 0.623529 0 0 0 68 47 26 255 
0.568359 0.587891 0.631373 0 0 0 66 70 18 255 
0.570312 0.421875 0.643137 0 0 0 64 47 24 255 
0.570312 0.423828 0.631373 0 0 0 65 46 25 255 
0.570312 0.425781 0.623529 0 0 0 69 51 26 255 
0.570312 0.427734 0.615686 0 0 0 71 50 35 255 
0.570312 0.429688 0.607843 0 0 0 77 49 32 255 
0.570312 0.431641 0.603922 0 0 0 75 52 30 255 
0.570312 0.433594 0.596078 0 0 0 77 53 31 255 
0.570312 0.435547 0.592157 0 0 0 79 54 30 255 
0.570312 0.4375 0.584314 0 0 0 80 53 31 255 
0.570312 0.439453 0.580392 0 0 0 81 53 33 255 
0.570312 0.441406 0.572549 0 0 0 81 55 33 255 
0.570312 0.443359 0.568627 0 0 0 81 56 35 255 
0.570312 0.445312 0.564706 0 0 0 82 58 36 255 
0.570312 0.447266 0.560784 0 0 0 80 58 37 255 
0.570312 0.449219 0.556863 0 0 0 82 56 40 255 
0.570312 0.451172 0.552941 0 0 0 86 59 40 255 
0.570312 0.453125 0.545098 0 0 0 87 58 41 255 
0.570312 0.455078 0.541176 0 0 0 88 61 41 255 
0.570312 0.457031 0.537255 0 0 0 86 57 40 255 
0.570312 0.458984 0.537255 0 0 0 83 60 38 255 
0.570312 0.460938 0.533333 0 0 0 77 58 42 255 
0.570312 0.462891 0.529412 0 0 0 80 57 41 255 
0.570312 0.464844 0.52549 0 0 0 81 60 41 255 
0.570312 0.466797 0.521569 0 0 0 80 58 39 255 
0.570312 0.46875 0.521569 0 0 0 83 56 39 255 
0.570312 0.470703 0.517647 0 0 0 82 59 35 255 
0.570312 0.472656 0.513726 0 0 0 85 57 42 255 
0.570312 0.474609 0.509804 0 0 0 88 59 40 255 
0.570312 0.476562 0.505882 0 0 0 86 57 42 255 
0.570312 0.478516 0.501961 0 0 0 88 56 40 255 
0.570312 0.480469 0.498039 0 0 0 88 52 39 255 
0.570312 0.482422 0.494118 0 0 0 86 52 38 255 
0.570312 0.484375 0.490196 0 0 0 84 51 38 255 
0.570312 0.486328 0.490196 0 0 0 85 51 39 255 
0.570312 0.488281 0.486275 0 0 0 85 54 40 255 
0.570312 0.490234 0.486275 0 0 0 87 54 44 255 
0.570312 0.492188 0.482353 0 0 0 95 60 42 255 
0.570312 0.494141 0.478431 0 0 0 98 67 45 255 
0.570312 0.496094 0.478431 0 0 0 97 63 56 255 
0.570312 0.498047 0.478431 0 0 0 103 60 59 255 
0.570312 0.5 0.478431 0 0 0 106 58 48 255 
0.570312 0.501953 0.478431 0 0 0 102 57 47 255 
0.570312 0.503906 0.478431 0 0 0 91 57 48 255 
0.570312 0.505859 0.478431 0 0 0 90 60 48 255 
0.570312 0.507812 0.478431 0 0 0 91 62 49 255 
0.570312 0.509766 0.478431 0 0 0 93 60 50 255 
0.570312 0.511719 0.478431 0 0 0 94 59 50 255 
0.570312 0.513672 0.478431 0 0 0 90 61 46 255 
0.570312 0.515625 0.478431 0 0 0 90 55 50 255 
0.570312 0.517578 0.478431 0 0 0 92 56 37 255 
0.570312 0.519531 0.478431 0 0 0 96 67 41 255 
0.570312 0.521484 0.478431 0 0 0 94 58 52 255 
0.570312 0.523438 0.486275 0 0 0 102 56 38 255 
0.570312 0.525391 0.486275 0 0 0 86 50 38 255 
0.570312 0.527344 0.486275 0 0 0 89 55 34 255 
0.570312 0.529297 0.490196 0 0 0 85 55 37 255 
0.570312 0.53125 0.494118 0 0 0 82 54 32 255 
0.570312 0.533203 0.494118 0 0 0 81 55 32 255 
0.570312 0.535156 0.498039 0 0 0 80 57 36 255 
0.570312 0.537109 0.501961 0 0 0 83 58 36 255 
0.570312 0.539062 0.501961 0 0 0 82 57 40 255 
0.570312 0.541016 0.509804 0 0 0 82 56 41 255 
0.570312 0.542969 0.513726 0 0 0 77 55 38 255 
0.570312 0.544922 0.517647 0 0 0 74 57 35 255 
0.570312 0.546875 0.521569 0 0 0 73 58 41 255 
0.570312 0.548828 0.52549 0 0 0 73 56 39 255 
0.570312 0.550781 0.533333 0 0 0 76 56 34 255 
0.570312 0.552734 0.533333 0 0 0 76 58 35 255 
0.570312 0.554688 0.537255 0 0 0 75 60 38 255 
0.570312 0.556641 0.541176 0 0 0 76 56 38 255 
0.570312 0.558594 0.545098 0 0 0 79 55 32 255 
0.570312 0.560547 0.54902 0 0 0 81 57 35 255 
0.570312 0.5625 0.556863 0 0 0 83 56 33 255 
0.570312 0.564453 0.556863 0 0 0 82 56 32 255 
0.570312 0.566406 0.564706 0 0 0 83 55 38 255 
0.570312 0.568359 0.568627 0 0 0 87 53 36 255 
0.570312 0.570312 0.572549 0 0 0 82 52 33 255 
0.570312 0.572266 0.580392 0 0 0 82 52 28 255 
0.570312 0.574219 0.584314 0 0 0 78 51 31 255 
0.570312 0.576172 0.592157 0 0 0 75 51 34 255 
0.570312 0.578125 0.6 0 0 0 74 51 31 255 
0.570312 0.580078 0.607843 0 0 0 73 52 31 255 
0.570312 0.582031 0.611765 0 0 0 74 47 28 255 
0.570312 0.583984 0.619608 0 0 0 75 47 32 255 
0.570312 0.585938 0.627451 0 0 0 70 47 20 255 
0.570312 0.587891 0.635294 0 0 0 62 145 10 255 
0.572266 0.423828 0.635294 0 0 0 70 46 31 255 
0.572266 0.425781 0.627451 0 0 0 70 49 31 255 
0.572266 0.427734 0.615686 0 0 0 71 50 31 255 
0.572266 0.429688 0.607843 0 0 0 73 52 32 255 
0.572266 0.431641 0.603922 0 0 0 73 53 35 255 
0.572266 0.433594 0.596078 0 0 0 77 54 33 255 
0.572266 0.435547 0.588235 0 0 0 79 55 31 255 
0.572266 0.4375 0.584314 0 0 0 81 55 35 255 
0.572266 0.439453 0.580392 0 0 0 81 53 34 255 
0.572266 0.441406 0.572549 0 0 0 79 55 32 255 
0.572266 0.443359 0.568627 0 0 0 80 57 34 255 
0.572266 0.445312 0.564706 0 0 0 83 59 37 255 
0.572266 0.447266 0.560784 0 0 0 83 56 39 255 
0.572266 0.449219 0.556863 0 0 0 84 56 40 255 
0.572266 0.451172 0.552941 0 0 0 86 59 40 255 
0.572266 0.453125 0.545098 0 0 0 87 59 41 255 
0.572266 0.455078 0.541176 0 0 0 88 60 41 255 
0.572266 0.457031 0.537255 0 0 0 86 58 39 255 
0.572266 0.458984 0.537255 0 0 0 81 60 38 255 
0.572266 0.460938 0.533333 0 0 0 80 58 42 255 
0.572266 0.462891 0.529412 0 0 0 81 57 41 255 
0.572266 0.464844 0.52549 0 0 0 81 58 40 255 
0.572266 0.466797 0.52549 0 0 0 79 58 40 255 
0.572266 0.46875 0.521569 0 0 0 84 55 37 255 
0.572266 0.470703 0.517647 0 0 0 81 57 34 255 
0.572266 0.472656 0.513726 0 0 0 85 56 40 255 
0.572266 0.474609 0.509804 0 0 0 87 55 37 255 
0.572266 0.476562 0.505882 0 0 0 84 52 37 255 
0.572266 0.478516 0.501961 0 0 0 82 51 37 255 
0.572266 0.480469 0.498039 0 0 0 81 48 40 255 
0.572266 0.482422 0.494118 0 0 0 80 49 35 255 
0.572266 0.484375 0.490196 0 0 0 78 49 34 255 
0.572266 0.486328 0.486275 0 0 0 78 50 39 255 
0.572266 0.488281 0.486275 0 0 0 82 56 41 255 
0.572266 0.490234 0.482353 0 0 0 86 61 47 255 
0.572266 0.492188 0.482353 0 0 0 93 63 50 255 
0.572266 0.494141 0.478431 0 0 0 100 61 53 255 
0.572266 0.496094 0.478431 0 0 0 102 62 53 255 
0.572266 0.498047 0.478431 0 0 0 99 64 54 255 
0.572266 0.5 0.478431 0 0 0 99 61 57 255 
0.572266 0.501953 0.478431 0 0 0 104 61 57 255 
0.572266 0.503906 0.478431 0 0 0 103 62 58 255 
0.572266 0.505859 0.478431 0 0 0 104 62 56 255 
0.572266 0.507812 0.47451 0 0 0 104 63 56 255 
0.572266 0.509766 0.478431 0 0 0 104 71 55 255 
0.572266 0.511719 0.478431 0 0 0 102 74 64 255 
0.572266 0.513672 0.478431 0 0 0 104 65 66 255 
0.572266 0.515625 0.478431 0 0 0 106 60 57 255 
0.572266 0.517578 0.478431 0 0 0 105 56 51 255 
0.572266 0.519531 0.478431 0 0 0 99 67 43 255 
0.572266 0.521484 0.478431 0 0 0 95 58 53 255 
0.572266 0.523438 0.482353 0 0 0 102 56 39 255 
0.572266 0.525391 0.482353 0 0 0 87 54 44 255 
0.572266 0.527344 0.482353 0 0 0 91 57 36 255 
0.572266 0.529297 0.486275 0 0 0 85 51 42 255 
0.572266 0.53125 0.494118 0 0 0 82 53 31 255 
0.572266 0.533203 0.494118 0 0 0 79 52 37 255 
0.572266 0.535156 0.498039 0 0 0 78 56 34 255 
0.572266 0.537109 0.501961 0 0 0 78 57 34 255 
0.572266 0.539062 0.505882 0 0 0 82 57 37 255 
0.572266 0.541016 0.509804 0 0 0 81 57 40 255 
0.572266 0.542969 0.513726 0 0 0 78 57 38 255 
0.572266 0.544922 0.517647 0 0 0 76 58 36 255 
0.572266 0.546875 0.521569 0 0 0 75 59 39 255 
0.572266 0.548828 0.52549 0 0 0 74 59 41 255 
0.572266 0.550781 0.533333 0 0 0 77 58 41 255 
0.572266 0.552734 0.533333 0 0 0 79 59 41 255 
0.572266 0.554688 0.537255 0 0 0 77 59 40 255 
0.572266 0.556641 0.541176 0 0 0 75 56 36 255 
0.572266 0.558594 0.545098 0 0 0 78 55 34 255 
0.572266 0.560547 0.54902 0 0 0 77 56 37 255 
0.572266 0.5625 0.556863 0 0 0 80 56 36 255 
0.572266 0.564453 0.560784 0 0 0 80 55 33 255 
0.572266 0.566406 0.564706 0 0 0 82 55 34 255 
0.572266 0.568359 0.568627 0 0 0 81 53 36 255 
0.572266 0.570312 0.572549 0 0 0 80 53 33 255 
0.572266 0.572266 0.580392 0 0 0 80 54 29 255 
0.572266 0.574219 0.588235 0 0 0 75 50 32 255 
0.572266 0.576172 0.596078 0 0 0 71 51 33 255 
0.572266 0.578125 0.6 0 0 0 75 51 33 255 
0.572266 0.580078 0.603922 0 0 0 73 50 32 255 
0.572266 0.582031 0.611765 0 0 0 74 47 35 255 
0.572266 0.583984 0.619608 0 0 0 76 45 35 255 
0.572266 0.585938 0.627451 0 0 0 71 41 20 255 
0.572266 0.587891 0.635294 0 0 0 61 145 8 255 
0.574219 0.423828 0.635294 0 0 0 69 49 33 255 
0.574219 0.425781 0.627451 0 0 0 70 47 29 255 
0.574219 0.427734 0.619608 0 0 0 70 47 28 255 
0.574219 0.429688 0.611765 0 0 0 74 51 31 255 
0.574219 0.431641 0.603922 0 0 0 77 53 31 255 
0.574219 0.433594 0.596078 0 0 0 77 55 29 255 
0.574219 0.435547 0.592157 0 0 0 78 55 30 255 
0.574219 0.4375 0.584314 0 0 0 80 52 36 255 
0.574219 0.439453 0.580392 0 0 0 82 50 34 255 
0.574219 0.441406 0.576471 0 0 0 78 54 31 255 
0.574219 0.443359 0.568627 0 0 0 77 57 34 255 
0.574219 0.445312 0.560784 0 0 0 83 59 37 255 
0.574219 0.447266 0.556863 0 0 0 85 57 37 255 
0.574219 0.449219 0.552941 0 0 0 87 56 41 255 
0.574219 0.451172 0.552941 0 0 0 87 58 41 255 
0.574219 0.453125 0.545098 0 0 0 87 60 40 255 
0.574219 0.455078 0.541176 0 0 0 86 60 42 255 
0.574219 0.457031 0.537255 0 0 0 86 60 40 255 
0.574219 0.458984 0.537255 0 0 0 83 59 40 255 
0.574219 0.460938 0.533333 0 0 0 83 58 37 255 
0.574219 0.462891 0.529412 0 0 0 82 57 40 255 
0.574219 0.464844 0.52549 0 0 0 83 57 41 255 
0.574219 0.466797 0.52549 0 0 0 81 57 37 255 
0.574219 0.46875 0.521569 0 0 0 82 52 34 255 
0.574219 0.470703 0.517647 0 0 0 80 56 29 255 
0.574219 0.472656 0.513726 0 0 0 78 52 40 255 
0.574219 0.474609 0.509804 0 0 0 86 50 34 255 
0.574219 0.476562 0.505882 0 0 0 78 48 32 255 
0.574219 0.478516 0.501961 0 0 0 76 49 36 255 
0.574219 0.480469 0.498039 0 0 0 75 48 38 255 
0.574219 0.482422 0.494118 0 0 0 77 48 35 255 
0.574219 0.484375 0.490196 0 0 0 77 49 34 255 
0.574219 0.486328 0.490196 0 0 0 77 50 36 255 
0.574219 0.488281 0.486275 0 0 0 80 55 40 255 
0.574219 0.490234 0.482353 0 0 0 80 62 45 255 
0.574219 0.492188 0.478431 0 0 0 87 65 53 255 
0.574219 0.494141 0.478431 0 0 0 96 81 56 255 
0.574219 0.496094 0.478431 0 0 0 98 80 70 255 
0.574219 0.498047 0.47451 0 0 0 113 82 69 255 
0.574219 0.5 0.47451 0 0 0 111 80 73 255 
0.574219 0.501953 0.47451 0 0 0 115 81 73 255 
0.574219 0.503906 0.47451 0 0 0 114 68 73 255 
0.574219 0.505859 0.47451 0 0 0 116 69 60 255 
0.574219 0.507812 0.47451 0 0 0 104 67 61 255 
0.574219 0.509766 0.47451 0 0 0 104 64 58 255 
0.574219 0.511719 0.47451 0 0 0 105 65 57 255 
0.574219 0.513672 0.47451 0 0 0 103 62 57 255 
0.574219 0.515625 0.47451 0 0 0 102 54 53 255 
0.574219 0.517578 0.478431 0 0 0 99 57 50 255 
0.574219 0.519531 0.478431 0 0 0 91 54 51 255 
0.574219 0.521484 0.478431 0 0 0 91 48 45 255 
0.574219 0.523438 0.482353 0 0 0 89 54 39 255 
0.574219 0.525391 0.482353 0 0 0 82 51 37 255 
0.574219 0.527344 0.486275 0 0 0 82 54 34 255 
0.574219 0.529297 0.486275 0 0 0 82 58 40 255 
0.574219 0.53125 0.490196 0 0 0 80 54 42 255 
0.574219 0.533203 0.494118 0 0 0 84 54 38 255 
0.574219 0.535156 0.498039 0 0 0 80 50 36 255 
0.574219 0.537109 0.501961 0 0 0 76 51 30 255 
0.574219 0.539062 0.505882 0 0 0 75 55 32 255 
0.574219 0.541016 0.509804 0 0 0 76 56 36 255 
0.574219 0.542969 0.513726 0 0 0 75 58 37 255 
0.574219 0.544922 0.521569 0 0 0 75 58 37 255 
0.574219 0.546875 0.52549 0 0 0 76 58 38 255 
0.574219 0.548828 0.529412 0 0 0 76 60 39 255 
0.574219 0.550781 0.533333 0 0 0 78 59 42 255 
0.574219 0.552734 0.537255 0 0 0 80 55 42 255 
0.574219 0.554688 0.537255 0 0 0 77 55 30 255 
0.574219 0.556641 0.541176 0 0 0 74 56 30 255 
0.574219 0.558594 0.545098 0 0 0 74 56 39 255 
0.574219 0.560547 0.54902 0 0 0 78 56 37 255 
0.574219 0.5625 0.552941 0 0 0 81 56 35 255 
0.574219 0.564453 0.556863 0 0 0 78 55 35 255 
0.574219 0.566406 0.564706 0 0 0 79 56 35 255 
0.574219 0.568359 0.568627 0 0 0 77 53 36 255 
0.574219 0.570312 0.576471 0 0 0 79 50 31 255 
0.574219 0.572266 0.580392 0 0 0 73 53 26 255 
0.574219 0.574219 0.588235 0 0 0 73 53 36 255 
0.574219 0.576172 0.596078 0 0 0 77 53 39 255 
0.574219 0.578125 0.6 0 0 0 78 50 38 255 
0.574219 0.580078 0.607843 0 0 0 77 50 33 255 
0.574219 0.582031 0.611765 0 0 0 73 47 33 255 
0.574219 0.583984 0.619608 0 0 0 71 47 29 255 
0.574219 0.585938 0.627451 0 0 0 69 92 18 255 
0.574219 0.587891 0.639216 0 0 0 64 200 72 255 
0.576172 0.423828 0.635294 0 0 0 66 49 32 255 
0.576172 0.425781 0.627451 0 0 0 69 51 30 255 
0.576172 0.427734 0.619608 0 0 0 71 52 27 255 
0.576172 0.429688 0.611765 0 0 0 76 50 31 255 
0.576172 0.431641 0.603922 0 0 0 78 52 30 255 
0.576172 0.433594 0.596078 0 0 0 76 54 25 255 
0.576172 0.435547 0.592157 0 0 0 77 55 28 255 
0.576172 0.4375 0.584314 0 0 0 81 51 32 255 
0.576172 0.439453 0.580392 0 0 0 82 50 31 255 
0.576172 0.441406 0.576471 0 0 0 75 54 33 255 
0.576172 0.443359 0.568627 0 0 0 74 56 36 255 
0.576172 0.445312 0.564706 0 0 0 83 56 37 255 
0.576172 0.447266 0.556863 0 0 0 87 57 36 255 
0.576172 0.449219 0.556863 0 0 0 86 56 37 255 
0.576172 0.451172 0.552941 0 0 0 85 58 39 255 
0.576172 0.453125 0.54902 0 0 0 89 61 38 255 
0.576172 0.455078 0.541176 0 0 0 86 61 42 255 
0.576172 0.457031 0.541176 0 0 0 87 61 42 255 
0.576172 0.458984 0.537255 0 0 0 86 58 39 255 
0.576172 0.460938 0.533333 0 0 0 84 59 36 255 
0.576172 0.462891 0.533333 0 0 0 82 57 38 255 
0.576172 0.464844 0.529412 0 0 0 82 55 39 255 
0.576172 0.466797 0.52549 0 0 0 81 53 37 255 
0.576172 0.46875 0.521569 0 0 0 76 48 34 255 
0.576172 0.470703 0.521569 0 0 0 76 50 32 255 
0.576172 0.472656 0.517647 0 0 0 73 40 31 255 
0.576172 0.474609 0.509804 0 0 0 76 48 30 255 
0.576172 0.476562 0.505882 0 0 0 69 48 33 255 
0.576172 0.478516 0.501961 0 0 0 77 48 37 255 
0.576172 0.480469 0.498039 0 0 0 78 51 38 255 
0.576172 0.482422 0.494118 0 0 0 81 51 38 255 
0.576172 0.484375 0.490196 0 0 0 80 48 37 255 
0.576172 0.486328 0.490196 0 0 0 78 50 36 255 
0.576172 0.488281 0.486275 0 0 0 79 51 42 255 
0.576172 0.490234 0.482353 0 0 0 81 59 42 255 
0.576172 0.492188 0.478431 0 0 0 82 58 50 255 
0.576172 0.494141 0.478431 0 0 0 88 82 50 255 
0.576172 0.496094 0.478431 0 0 0 88 79 73 255 
0.576172 0.498047 0.47451 0 0 0 110 75 70 255 
0.576172 0.5 0.47451 0 0 0 106 70 67 255 
0.576172 0.501953 0.47451 0 0 0 109 71 64 255 
0.576172 0.503906 0.47451 0 0 0 108 63 65 255 
0.576172 0.505859 0.47451 0 0 0 109 62 55 255 
0.576172 0.507812 0.47451 0 0 0 96 62 54 255 
0.576172 0.509766 0.47451 0 0 0 96 66 53 255 
0.576172 0.511719 0.47451 0 0 0 96 64 57 255 
0.576172 0.513672 0.47451 0 0 0 99 66 57 255 
0.576172 0.515625 0.478431 0 0 0 99 68 56 255 
0.576172 0.517578 0.478431 0 0 0 98 66 60 255 
0.576172 0.519531 0.478431 0 0 0 99 53 56 255 
0.576172 0.521484 0.478431 0 0 0 93 52 48 255 
0.576172 0.523438 0.478431 0 0 0 85 51 45 255 
0.576172 0.525391 0.482353 0 0 0 82 51 37 255 
0.576172 0.527344 0.482353 0 0 0 80 53 35 255 
0.576172 0.529297 0.486275 0 0 0 80 56 37 255 
0.576172 0.53125 0.490196 0 0 0 79 54 39 255 
0.576172 0.533203 0.494118 0 0 0 80 55 40 255 
0.576172 0.535156 0.498039 0 0 0 78 48 37 255 
0.576172 0.537109 0.498039 0 0 0 76 49 29 255 
0.576172 0.539062 0.501961 0 0 0 73 53 31 255 
0.576172 0.541016 0.509804 0 0 0 73 52 34 255 
0.576172 0.542969 0.517647 0 0 0 73 55 35 255 
0.576172 0.544922 0.521569 0 0 0 73 57 36 255 
0.576172 0.546875 0.52549 0 0 0 74 59 39 255 
0.576172 0.548828 0.529412 0 0 0 75 61 41 255 
0.576172 0.550781 0.533333 0 0 0 79 60 42 255 
0.576172 0.552734 0.537255 0 0 0 80 58 41 255 
0.576172 0.554688 0.541176 0 0 0 80 58 37 255 
0.576172 0.556641 0.541176 0 0 0 79 57 38 255 
0.576172 0.558594 0.545098 0 0 0 78 57 38 255 
0.576172 0.560547 0.54902 0 0 0 81 55 38 255 
0.576172 0.5625 0.552941 0 0 0 83 54 33 255 
0.576172 0.564453 0.556863 0 0 0 78 53 35 255 
0.576172 0.566406 0.564706 0 0 0 76 54 34 255 
0.576172 0.568359 0.568627 0 0 0 75 53 33 255 
0.576172 0.570312 0.576471 0 0 0 77 53 29 255 
0.576172 0.572266 0.584314 0 0 0 73 52 32 255 
0.576172 0.574219 0.588235 0 0 0 71 53 35 255 
0.576172 0.576172 0.596078 0 0 0 79 53 39 255 
0.576172 0.578125 0.6 0 0 0 79 51 40 255 
0.576172 0.580078 0.607843 0 0 0 76 50 38 255 
0.576172 0.582031 0.611765 0 0 0 78 49 28 255 
0.576172 0.583984 0.619608 0 0 0 69 48 27 255 
0.576172 0.585938 0.631373 0 0 0 68 143 25 255 
0.578125 0.423828 0.635294 0 0 0 65 49 32 255 
0.578125 0.425781 0.627451 0 0 0 72 50 32 255 
0.578125 0.427734 0.619608 0 0 0 73 50 32 255 
0.578125 0.429688 0.611765 0 0 0 75 51 33 255 
0.578125 0.431641 0.603922 0 0 0 78 52 33 255 
0.578125 0.433594 0.6 0 0 0 77 53 30 255 
0.578125 0.435547 0.592157 0 0 0 76 55 26 255 
0.578125 0.4375 0.584314 0 0 0 79 50 30 255 
0.578125 0.439453 0.580392 0 0 0 80 49 31 255 
0.578125 0.441406 0.576471 0 0 0 74 53 30 255 
0.578125 0.443359 0.568627 0 0 0 74 55 33 255 
0.578125 0.445312 0.564706 0 0 0 81 56 35 255 
0.578125 0.447266 0.560784 0 0 0 86 56 34 255 
0.578125 0.449219 0.556863 0 0 0 86 56 32 255 
0.578125 0.451172 0.552941 0 0 0 82 58 39 255 
0.578125 0.453125 0.54902 0 0 0 86 59 39 255 
0.578125 0.455078 0.545098 0 0 0 86 61 39 255 
0.578125 0.457031 0.541176 0 0 0 86 60 43 255 
0.578125 0.458984 0.537255 0 0 0 87 57 39 255 
0.578125 0.460938 0.537255 0 0 0 84 54 37 255 
0.578125 0.462891 0.533333 0 0 0 78 52 36 255 
0.578125 0.464844 0.533333 0 0 0 73 47 35 255 
0.578125 0.466797 0.529412 0 0 0 73 48 37 255 
0.578125 0.46875 0.52549 0 0 0 67 46 31 255 
0.578125 0.470703 0.52549 0 0 0 72 52 30 255 
0.578125 0.472656 0.517647 0 0 0 68 52 36 255 
0.578125 0.474609 0.513726 0 0 0 81 49 38 255 
0.578125 0.476562 0.505882 0 0 0 85 48 33 255 
0.578125 0.478516 0.501961 0 0 0 80 46 36 255 
0.578125 0.480469 0.498039 0 0 0 80 51 38 255 
0.578125 0.482422 0.498039 0 0 0 83 54 42 255 
0.578125 0.484375 0.490196 0 0 0 85 51 45 255 
0.578125 0.486328 0.490196 0 0 0 89 47 44 255 
0.578125 0.488281 0.486275 0 0 0 85 53 40 255 
0.578125 0.490234 0.482353 0 0 0 78 53 40 255 
0.578125 0.492188 0.478431 0 0 0 81 53 44 255 
0.578125 0.494141 0.478431 0 0 0 81 59 46 255 
0.578125 0.496094 0.478431 0 0 0 81 59 51 255 
0.578125 0.498047 0.478431 0 0 0 81 59 50 255 
0.578125 0.5 0.478431 0 0 0 79 60 50 255 
0.578125 0.501953 0.478431 0 0 0 79 60 55 255 
0.578125 0.503906 0.47451 0 0 0 92 56 56 255 
0.578125 0.505859 0.47451 0 0 0 93 56 50 255 
0.578125 0.507812 0.47451 0 0 0 87 61 50 255 
0.578125 0.509766 0.47451 0 0 0 87 66 52 255 
0.578125 0.511719 0.47451 0 0 0 89 58 57 255 
0.578125 0.513672 0.478431 0 0 0 93 60 53 255 
0.578125 0.515625 0.47451 0 0 0 91 62 50 255 
0.578125 0.517578 0.478431 0 0 0 90 59 56 255 
0.578125 0.519531 0.478431 0 0 0 96 54 49 255 
0.578125 0.521484 0.478431 0 0 0 89 50 48 255 
0.578125 0.523438 0.478431 0 0 0 85 51 40 255 
0.578125 0.525391 0.482353 0 0 0 82 52 36 255 
0.578125 0.527344 0.482353 0 0 0 75 49 36 255 
0.578125 0.529297 0.486275 0 0 0 78 51 34 255 
0.578125 0.53125 0.490196 0 0 0 73 51 39 255 
0.578125 0.533203 0.494118 0 0 0 73 54 39 255 
0.578125 0.535156 0.498039 0 0 0 75 47 34 255 
0.578125 0.537109 0.498039 0 0 0 73 49 29 255 
0.578125 0.539062 0.505882 0 0 0 71 52 31 255 
0.578125 0.541016 0.509804 0 0 0 72 52 33 255 
0.578125 0.542969 0.517647 0 0 0 72 51 34 255 
0.578125 0.544922 0.521569 0 0 0 71 54 32 255 
0.578125 0.546875 0.52549 0 0 0 68 57 35 255 
0.578125 0.548828 0.533333 0 0 0 71 58 40 255 
0.578125 0.550781 0.533333 0 0 0 78 59 39 255 
0.578125 0.552734 0.537255 0 0 0 82 59 38 255 
0.578125 0.554688 0.541176 0 0 0 82 58 40 255 
0.578125 0.556641 0.545098 0 0 0 80 55 40 255 
0.578125 0.558594 0.545098 0 0 0 78 56 38 255 
0.578125 0.560547 0.54902 0 0 0 80 56 39 255 
0.578125 0.5625 0.552941 0 0 0 82 53 36 255 
0.578125 0.564453 0.556863 0 0 0 79 52 34 255 
0.578125 0.566406 0.564706 0 0 0 75 53 31 255 
0.578125 0.568359 0.568627 0 0 0 76 50 29 255 
0.578125 0.570312 0.576471 0 0 0 77 51 24 255 
0.578125 0.572266 0.584314 0 0 0 73 52 27 255 
0.578125 0.574219 0.588235 0 0 0 75 53 34 255 
0.578125 0.576172 0.596078 0 0 0 78 54 36 255 
0.578125 0.578125 0.6 0 0 0 76 50 36 255 
0.578125 0.580078 0.607843 0 0 0 74 50 33 255 
0.578125 0.582031 0.615686 0 0 0 75 48 22 255 
0.578125 0.583984 0.623529 0 0 0 68 46 29 255 
0.578125 0.585938 0.631373 0 0 0 66 181 24 255 
0.578125 0.587891 0.639216 0 0 0 64 255 171 255 
0.580078 0.425781 0.631373 0 0 0 70 49 31 255 
0.580078 0.427734 0.623529 0 0 0 72 52 30 255 
0.580078 0.429688 0.611765 0 0 0 75 52 29 255 
0.580078 0.431641 0.607843 0 0 0 77 52 30 255 
0.580078 0.433594 0.6 0 0 0 76 53 26 255 
0.580078 0.435547 0.592157 0 0 0 77 53 24 255 
0.580078 0.4375 0.588235 0 0 0 81 48 30 255 
0.580078 0.439453 0.584314 0 0 0 79 49 32 255 
0.580078 0.441406 0.576471 0 0 0 75 52 31 255 
0.580078 0.443359 0.568627 0 0 0 74 55 30 255 
0.580078 0.445312 0.564706 0 0 0 78 53 33 255 
0.580078 0.447266 0.560784 0 0 0 84 54 34 255 
0.580078 0.449219 0.556863 0 0 0 83 58 37 255 
0.580078 0.451172 0.552941 0 0 0 79 56 39 255 
0.580078 0.453125 0.54902 0 0 0 83 59 40 255 
0.580078 0.455078 0.545098 0 0 0 85 57 39 255 
0.580078 0.457031 0.541176 0 0 0 85 57 40 255 
0.580078 0.458984 0.541176 0 0 0 81 53 38 255 
0.580078 0.460938 0.537255 0 0 0 83 50 38 255 
0.580078 0.462891 0.537255 0 0 0 77 52 34 255 
0.580078 0.464844 0.533333 0 0 0 71 50 31 255 
0.580078 0.466797 0.529412 0 0 0 72 51 28 255 
0.580078 0.46875 0.52549 0 0 0 76 51 34 255 
0.580078 0.470703 0.521569 0 0 0 77 53 34 255 
0.580078 0.472656 0.517647 0 0 0 82 52 36 255 
0.580078 0.474609 0.513726 0 0 0 82 50 38 255 
0.580078 0.476562 0.505882 0 0 0 84 51 37 255 
0.580078 0.478516 0.501961 0 0 0 84 49 38 255 
0.580078 0.480469 0.498039 0 0 0 86 53 39 255 
0.580078 0.482422 0.494118 0 0 0 88 55 43 255 
0.580078 0.484375 0.490196 0 0 0 87 52 47 255 
0.580078 0.486328 0.486275 0 0 0 90 50 46 255 
0.580078 0.488281 0.486275 0 0 0 89 55 43 255 
0.580078 0.490234 0.482353 0 0 0 83 54 44 255 
0.580078 0.492188 0.482353 0 0 0 85 54 46 255 
0.580078 0.494141 0.478431 0 0 0 81 58 46 255 
0.580078 0.496094 0.47451 0 0 0 84 59 50 255 
0.580078 0.498047 0.478431 0 0 0 80 58 51 255 
0.580078 0.5 0.47451 0 0 0 82 59 52 255 
0.580078 0.501953 0.47451 0 0 0 83 59 50 255 
0.580078 0.503906 0.478431 0 0 0 79 59 50 255 
0.580078 0.505859 0.478431 0 0 0 79 59 53 255 
0.580078 0.507812 0.47451 0 0 0 85 61 53 255 
0.580078 0.509766 0.47451 0 0 0 85 61 56 255 
0.580078 0.511719 0.47451 0 0 0 86 56 56 255 
0.580078 0.513672 0.47451 0 0 0 86 56 52 255 
0.580078 0.515625 0.47451 0 0 0 84 55 44 255 
0.580078 0.517578 0.478431 0 0 0 88 60 50 255 
0.580078 0.519531 0.478431 0 0 0 93 52 46 255 
0.580078 0.521484 0.478431 0 0 0 84 49 46 255 
0.580078 0.523438 0.478431 0 0 0 83 48 41 255 
0.580078 0.525391 0.482353 0 0 0 79 51 35 255 
0.580078 0.527344 0.486275 0 0 0 71 48 36 255 
0.580078 0.529297 0.490196 0 0 0 76 50 36 255 
0.580078 0.53125 0.490196 0 0 0 72 48 36 255 
0.580078 0.533203 0.494118 0 0 0 72 52 37 255 
0.580078 0.535156 0.498039 0 0 0 72 39 34 255 
0.580078 0.537109 0.501961 0 0 0 69 50 27 255 
0.580078 0.539062 0.509804 0 0 0 65 50 35 255 
0.580078 0.541016 0.513726 0 0 0 71 49 32 255 
0.580078 0.542969 0.521569 0 0 0 71 48 31 255 
0.580078 0.544922 0.52549 0 0 0 67 49 31 255 
0.580078 0.546875 0.529412 0 0 0 67 55 33 255 
0.580078 0.548828 0.533333 0 0 0 68 58 38 255 
0.580078 0.550781 0.537255 0 0 0 71 59 39 255 
0.580078 0.552734 0.541176 0 0 0 75 57 41 255 
0.580078 0.554688 0.541176 0 0 0 81 60 43 255 
0.580078 0.556641 0.545098 0 0 0 83 57 40 255 
0.580078 0.558594 0.54902 0 0 0 79 56 37 255 
0.580078 0.560547 0.54902 0 0 0 77 58 39 255 
0.580078 0.5625 0.556863 0 0 0 81 55 37 255 
0.580078 0.564453 0.560784 0 0 0 79 53 33 255 
0.580078 0.566406 0.564706 0 0 0 74 54 25 255 
0.580078 0.568359 0.568627 0 0 0 75 52 32 255 
0.580078 0.570312 0.576471 0 0 0 77 52 29 255 
0.580078 0.572266 0.584314 0 0 0 75 51 31 255 
0.580078 0.574219 0.592157 0 0 0 74 52 36 255 
0.580078 0.576172 0.596078 0 0 0 78 54 34 255 
0.580078 0.578125 0.6 0 0 0 76 51 30 255 
0.580078 0.580078 0.607843 0 0 0 73 48 28 255 
0.580078 0.582031 0.615686 0 0 0 66 47 24 255 
0.580078 0.583984 0.623529 0 0 0 66 43 30 255 
0.580078 0.585938 0.631373 0 0 0 62 255 22 255 
0.582031 0.425781 0.631373 0 0 0 68 51 30 255 
0.582031 0.427734 0.623529 0 0 0 72 50 32 255 
0.582031 0.429688 0.615686 0 0 0 73 49 32 255 
0.582031 0.431641 0.607843 0 0 0 74 51 31 255 
0.582031 0.433594 0.603922 0 0 0 74 54 27 255 
0.582031 0.435547 0.596078 0 0 0 74 54 27 255 
0.582031 0.4375 0.588235 0 0 0 80 48 30 255 
0.582031 0.439453 0.584314 0 0 0 80 48 30 255 
0.582031 0.441406 0.576471 0 0 0 75 51 31 255 
0.582031 0.443359 0.568627 0 0 0 74 56 32 255 
0.582031 0.445312 0.564706 0 0 0 77 54 35 255 
0.582031 0.447266 0.560784 0 0 0 84 57 31 255 
0.582031 0.449219 0.556863 0 0 0 82 57 35 255 
0.582031 0.451172 0.552941 0 0 0 84 56 38 255 
0.582031 0.453125 0.54902 0 0 0 85 57 38 255 
0.582031 0.455078 0.545098 0 0 0 82 54 37 255 
0.582031 0.457031 0.545098 0 0 0 82 57 37 255 
0.582031 0.458984 0.545098 0 0 0 81 52 37 255 
0.582031 0.460938 0.541176 0 0 0 82 51 38 255 
0.582031 0.462891 0.537255 0 0 0 80 52 33 255 
0.582031 0.464844 0.533333 0 0 0 77 49 33 255 
0.582031 0.466797 0.529412 0 0 0 75 51 27 255 
0.582031 0.46875 0.52549 0 0 0 77 53 34 255 
0.582031 0.470703 0.521569 0 0 0 77 53 37 255 
0.582031 0.472656 0.517647 0 0 0 83 53 38 255 
0.582031 0.474609 0.509804 0 0 0 83 52 37 255 
0.582031 0.476562 0.505882 0 0 0 84 52 36 255 
0.582031 0.478516 0.501961 0 0 0 84 50 38 255 
0.582031 0.480469 0.498039 0 0 0 86 53 41 255 
0.582031 0.482422 0.494118 0 0 0 88 55 44 255 
0.582031 0.484375 0.490196 0 0 0 86 56 48 255 
0.582031 0.486328 0.486275 0 0 0 90 57 50 255 
0.582031 0.488281 0.486275 0 0 0 92 61 50 255 
0.582031 0.490234 0.482353 0 0 0 94 61 54 255 
0.582031 0.492188 0.482353 0 0 0 98 54 55 255 
0.582031 0.494141 0.478431 0 0 0 94 58 46 255 
0.582031 0.496094 0.478431 0 0 0 82 59 49 255 
0.582031 0.498047 0.478431 0 0 0 80 58 51 255 
0.582031 0.5 0.47451 0 0 0 82 57 52 255 
0.582031 0.501953 0.47451 0 0 0 84 58 51 255 
0.582031 0.503906 0.47451 0 0 0 80 59 51 255 
0.582031 0.505859 0.47451 0 0 0 80 59 53 255 
0.582031 0.507812 0.47451 0 0 0 85 61 53 255 
0.582031 0.509766 0.47451 0 0 0 85 61 56 255 
0.582031 0.511719 0.47451 0 0 0 86 56 56 255 
0.582031 0.513672 0.47451 0 0 0 86 54 52 255 
0.582031 0.515625 0.47451 0 0 0 84 53 46 255 
0.582031 0.517578 0.478431 0 0 0 82 55 50 255 
0.582031 0.519531 0.478431 0 0 0 88 54 47 255 
0.582031 0.521484 0.478431 0 0 0 81 53 46 255 
0.582031 0.523438 0.478431 0 0 0 79 47 40 255 
0.582031 0.525391 0.486275 0 0 0 80 54 34 255 
0.582031 0.527344 0.486275 0 0 0 74 52 35 255 
0.582031 0.529297 0.490196 0 0 0 79 54 40 255 
0.582031 0.53125 0.494118 0 0 0 78 44 39 255 
0.582031 0.533203 0.494118 0 0 0 77 53 37 255 
0.582031 0.535156 0.501961 0 0 0 66 42 34 255 
0.582031 0.537109 0.501961 0 0 0 67 49 28 255 
0.582031 0.539062 0.509804 0 0 0 68 49 34 255 
0.582031 0.541016 0.513726 0 0 0 71 49 32 255 
0.582031 0.542969 0.521569 0 0 0 71 46 31 255 
0.582031 0.544922 0.52549 0 0 0 67 47 30 255 
0.582031 0.546875 0.533333 0 0 0 65 51 31 255 
0.582031 0.548828 0.537255 0 0 0 67 52 34 255 
0.582031 0.550781 0.541176 0 0 0 69 57 32 255 
0.582031 0.552734 0.545098 0 0 0 70 58 40 255 
0.582031 0.554688 0.545098 0 0 0 76 59 43 255 
0.582031 0.556641 0.545098 0 0 0 79 56 40 255 
0.582031 0.558594 0.54902 0 0 0 78 55 39 255 
0.582031 0.560547 0.552941 0 0 0 80 58 39 255 
0.582031 0.5625 0.556863 0 0 0 84 56 39 255 
0.582031 0.564453 0.560784 0 0 0 82 52 33 255 
0.582031 0.566406 0.564706 0 0 0 76 53 26 255 
0.582031 0.568359 0.572549 0 0 0 76 50 36 255 
0.582031 0.570312 0.576471 0 0 0 76 51 37 255 
0.582031 0.572266 0.584314 0 0 0 75 50 35 255 
0.582031 0.574219 0.588235 0 0 0 71 53 24 255 
0.582031 0.576172 0.596078 0 0 0 76 50 29 255 
0.582031 0.578125 0.603922 0 0 0 73 54 34 255 
0.582031 0.580078 0.611765 0 0 0 75 48 31 255 
0.582031 0.582031 0.615686 0 0 0 69 52 21 255 
0.582031 0.583984 0.627451 0 0 0 68 145 30 255 
0.582031 0.585938 0.639216 0 0 0 66 255 138 255 
0.583984 0.423828 0.635294 0 0 0 65 45 27 255 
0.583984 0.425781 0.635294 0 0 0 65 49 29 255 
0.583984 0.427734 0.623529 0 0 0 71 50 31 255 
0.583984 0.429688 0.615686 0 0 0 76 47 30 255 
0.583984 0.431641 0.607843 0 0 0 76 49 29 255 
0.583984 0.433594 0.603922 0 0 0 71 51 31 255 
0.583984 0.435547 0.596078 0 0 0 71 52 32 255 
0.583984 0.4375 0.588235 0 0 0 77 48 32 255 
0.583984 0.439453 0.584314 0 0 0 78 49 29 255 
0.583984 0.441406 0.576471 0 0 0 75 53 30 255 
0.583984 0.443359 0.572549 0 0 0 75 56 33 255 
0.583984 0.445312 0.564706 0 0 0 79 54 36 255 
0.583984 0.447266 0.560784 0 0 0 84 53 33 255 
0.583984 0.449219 0.556863 0 0 0 83 55 31 255 
0.583984 0.451172 0.552941 0 0 0 82 56 35 255 
0.583984 0.453125 0.54902 0 0 0 84 58 38 255 
0.583984 0.455078 0.54902 0 0 0 82 58 35 255 
0.583984 0.457031 0.545098 0 0 0 82 56 35 255 
0.583984 0.458984 0.541176 0 0 0 83 52 36 255 
0.583984 0.460938 0.541176 0 0 0 80 55 34 255 
0.583984 0.462891 0.541176 0 0 0 80 53 33 255 
0.583984 0.464844 0.533333 0 0 0 76 52 37 255 
0.583984 0.466797 0.533333 0 0 0 78 52 30 255 
0.583984 0.46875 0.52549 0 0 0 79 53 33 255 
0.583984 0.470703 0.521569 0 0 0 79 52 37 255 
0.583984 0.472656 0.517647 0 0 0 83 51 37 255 
0.583984 0.474609 0.509804 0 0 0 83 52 37 255 
0.583984 0.476562 0.505882 0 0 0 83 52 35 255 
0.583984 0.478516 0.501961 0 0 0 83 51 37 255 
0.583984 0.480469 0.498039 0 0 0 84 53 39 255 
0.583984 0.482422 0.494118 0 0 0 85 54 42 255 
0.583984 0.484375 0.490196 0 0 0 86 56 43 255 
0.583984 0.486328 0.486275 0 0 0 90 68 45 255 
0.583984 0.488281 0.486275 0 0 0 93 60 57 255 
0.583984 0.490234 0.482353 0 0 0 99 64 56 255 
0.583984 0.492188 0.482353 0 0 0 98 54 55 255 
0.583984 0.494141 0.478431 0 0 0 100 61 48 255 
0.583984 0.496094 0.478431 0 0 0 89 57 56 255 
0.583984 0.498047 0.478431 0 0 0 91 57 52 255 
0.583984 0.5 0.478431 0 0 0 87 56 52 255 
0.583984 0.501953 0.478431 0 0 0 88 56 51 255 
0.583984 0.503906 0.47451 0 0 0 80 54 50 255 
0.583984 0.505859 0.47451 0 0 0 80 54 47 255 
0.583984 0.507812 0.47451 0 0 0 81 56 47 255 
0.583984 0.509766 0.47451 0 0 0 81 60 51 255 
0.583984 0.511719 0.47451 0 0 0 82 60 51 255 
0.583984 0.513672 0.478431 0 0 0 88 53 54 255 
0.583984 0.515625 0.478431 0 0 0 90 56 48 255 
0.583984 0.517578 0.478431 0 0 0 86 54 49 255 
0.583984 0.519531 0.478431 0 0 0 91 56 46 255 
0.583984 0.521484 0.482353 0 0 0 88 54 50 255 
0.583984 0.523438 0.478431 0 0 0 90 50 38 255 
0.583984 0.525391 0.482353 0 0 0 86 57 37 255 
0.583984 0.527344 0.486275 0 0 0 83 54 40 255 
0.583984 0.529297 0.490196 0 0 0 81 54 41 255 
0.583984 0.53125 0.494118 0 0 0 80 56 39 255 
0.583984 0.533203 0.498039 0 0 0 78 57 40 255 
0.583984 0.535156 0.501961 0 0 0 77 51 37 255 
0.583984 0.537109 0.505882 0 0 0 77 51 32 255 
0.583984 0.539062 0.509804 0 0 0 73 53 35 255 
0.583984 0.541016 0.513726 0 0 0 74 52 33 255 
0.583984 0.542969 0.521569 0 0 0 74 46 31 255 
0.583984 0.544922 0.529412 0 0 0 71 45 28 255 
0.583984 0.546875 0.533333 0 0 0 67 50 28 255 
0.583984 0.548828 0.537255 0 0 0 68 55 31 255 
0.583984 0.550781 0.541176 0 0 0 71 56 34 255 
0.583984 0.552734 0.545098 0 0 0 73 56 37 255 
0.583984 0.554688 0.545098 0 0 0 73 57 36 255 
0.583984 0.556641 0.54902 0 0 0 76 54 33 255 
0.583984 0.558594 0.54902 0 0 0 81 54 34 255 
0.583984 0.560547 0.552941 0 0 0 79 57 37 255 
0.583984 0.5625 0.556863 0 0 0 79 55 38 255 
0.583984 0.564453 0.560784 0 0 0 81 53 35 255 
0.583984 0.566406 0.564706 0 0 0 78 52 31 255 
0.583984 0.568359 0.572549 0 0 0 77 49 36 255 
0.583984 0.570312 0.576471 0 0 0 75 50 36 255 
0.583984 0.572266 0.584314 0 0 0 71 50 33 255 
0.583984 0.574219 0.592157 0 0 0 68 51 34 255 
0.583984 0.576172 0.6 0 0 0 74 54 25 255 
0.583984 0.578125 0.603922 0 0 0 70 47 30 255 
0.583984 0.580078 0.611765 0 0 0 78 46 30 255 
0.583984 0.582031 0.619608 0 0 0 71 42 23 255 
0.583984 0.583984 0.627451 0 0 0 65 255 11 255 
0.583984 0.585938 0.639216 0 0 0 58 255 255 255 
0.585938 0.425781 0.635294 0 0 0 63 49 30 255 
0.585938 0.427734 0.627451 0 0 0 69 49 30 255 
0.585938 0.429688 0.619608 0 0 0 75 47 28 255 
0.585938 0.431641 0.611765 0 0 0 75 51 30 255 
0.585938 0.433594 0.603922 0 0 0 72 50 34 255 
0.585938 0.435547 0.6 0 0 0 74 49 31 255 
0.585938 0.4375 0.592157 0 0 0 76 48 31 255 
0.585938 0.439453 0.584314 0 0 0 76 51 32 255 
0.585938 0.441406 0.580392 0 0 0 75 54 31 255 
0.585938 0.443359 0.572549 0 0 0 77 54 33 255 
0.585938 0.445312 0.564706 0 0 0 81 55 34 255 
0.585938 0.447266 0.560784 0 0 0 83 56 32 255 
0.585938 0.449219 0.556863 0 0 0 82 60 34 255 
0.585938 0.451172 0.552941 0 0 0 79 59 41 255 
0.585938 0.453125 0.552941 0 0 0 84 55 35 255 
0.585938 0.455078 0.54902 0 0 0 81 59 36 255 
0.585938 0.457031 0.545098 0 0 0 83 52 36 255 
0.585938 0.458984 0.545098 0 0 0 83 52 35 255 
0.585938 0.460938 0.541176 0 0 0 82 55 33 255 
0.585938 0.462891 0.541176 0 0 0 80 55 33 255 
0.585938 0.464844 0.537255 0 0 0 78 55 36 255 
0.585938 0.466797 0.533333 0 0 0 82 49 31 255 
0.585938 0.46875 0.52549 0 0 0 82 53 31 255 
0.585938 0.470703 0.521569 0 0 0 81 51 34 255 
0.585938 0.472656 0.517647 0 0 0 83 52 33 255 
0.585938 0.474609 0.513726 0 0 0 80 52 35 255 
0.585938 0.476562 0.505882 0 0 0 79 51 36 255 
0.585938 0.478516 0.505882 0 0 0 81 52 37 255 
0.585938 0.480469 0.498039 0 0 0 81 51 35 255 
0.585938 0.482422 0.494118 0 0 0 80 51 37 255 
0.585938 0.484375 0.490196 0 0 0 79 57 37 255 
0.585938 0.486328 0.486275 0 0 0 81 56 42 255 
0.585938 0.488281 0.486275 0 0 0 88 55 47 255 
0.585938 0.490234 0.482353 0 0 0 91 69 47 255 
0.585938 0.492188 0.482353 0 0 0 88 52 60 255 
0.585938 0.494141 0.482353 0 0 0 99 60 47 255 
0.585938 0.496094 0.478431 0 0 0 92 57 54 255 
0.585938 0.498047 0.478431 0 0 0 95 58 51 255 
0.585938 0.5 0.478431 0 0 0 92 59 51 255 
0.585938 0.501953 0.478431 0 0 0 92 65 52 255 
0.585938 0.503906 0.478431 0 0 0 92 71 56 255 
0.585938 0.505859 0.478431 0 0 0 96 71 58 255 
0.585938 0.507812 0.478431 0 0 0 96 67 58 255 
0.585938 0.509766 0.478431 0 0 0 97 64 54 255 
0.585938 0.511719 0.478431 0 0 0 95 69 54 255 
0.585938 0.513672 0.478431 0 0 0 93 60 59 255 
0.585938 0.515625 0.478431 0 0 0 94 57 55 255 
0.585938 0.517578 0.478431 0 0 0 90 59 45 255 
0.585938 0.519531 0.478431 0 0 0 90 55 45 255 
0.585938 0.521484 0.482353 0 0 0 88 56 46 255 
0.585938 0.523438 0.482353 0 0 0 90 47 50 255 
0.585938 0.525391 0.486275 0 0 0 86 57 37 255 
0.585938 0.527344 0.486275 0 0 0 82 45 41 255 
0.585938 0.529297 0.490196 0 0 0 80 54 34 255 
0.585938 0.53125 0.494118 0 0 0 68 54 36 255 
0.585938 0.533203 0.498039 0 0 0 77 49 34 255 
0.585938 0.535156 0.501961 0 0 0 75 50 28 255 
0.585938 0.537109 0.505882 0 0 0 72 52 31 255 
0.585938 0.539062 0.509804 0 0 0 72 52 33 255 
0.585938 0.541016 0.517647 0 0 0 74 51 30 255 
0.585938 0.542969 0.521569 0 0 0 75 48 30 255 
0.585938 0.544922 0.529412 0 0 0 73 48 30 255 
0.585938 0.546875 0.533333 0 0 0 71 51 30 255 
0.585938 0.548828 0.537255 0 0 0 71 55 32 255 
0.585938 0.550781 0.541176 0 0 0 73 58 38 255 
0.585938 0.552734 0.545098 0 0 0 74 57 39 255 
0.585938 0.554688 0.54902 0 0 0 74 55 34 255 
0.585938 0.556641 0.54902 0 0 0 78 55 35 255 
0.585938 0.558594 0.552941 0 0 0 81 55 35 255 
0.585938 0.560547 0.552941 0 0 0 82 58 36 255 
0.585938 0.5625 0.556863 0 0 0 83 55 39 255 
0.585938 0.564453 0.560784 0 0 0 83 53 37 255 
0.585938 0.566406 0.564706 0 0 0 78 51 35 255 
0.585938 0.568359 0.572549 0 0 0 75 50 35 255 
0.585938 0.570312 0.576471 0 0 0 74 50 36 255 
0.585938 0.572266 0.584314 0 0 0 72 51 31 255 
0.585938 0.574219 0.592157 0 0 0 71 52 33 255 
0.585938 0.576172 0.6 0 0 0 74 53 31 255 
0.585938 0.578125 0.603922 0 0 0 71 49 33 255 
0.585938 0.580078 0.611765 0 0 0 78 48 29 255 
0.585938 0.582031 0.619608 0 0 0 72 144 19 255 
0.585938 0.583984 0.635294 0 0 0 67 255 138 255 
0.587891 0.427734 0.627451 0 0 0 69 48 27 255 
0.587891 0.429688 0.619608 0 0 0 73 47 31 255 
0.587891 0.431641 0.611765 0 0 0 76 48 31 255 
0.587891 0.433594 0.603922 0 0 0 74 47 34 255 
0.587891 0.435547 0.6 0 0 0 75 48 33 255 
0.587891 0.4375 0.592157 0 0 0 76 48 31 255 
0.587891 0.439453 0.584314 0 0 0 76 51 30 255 
0.587891 0.441406 0.580392 0 0 0 74 51 29 255 
0.587891 0.443359 0.572549 0 0 0 77 53 31 255 
0.587891 0.445312 0.564706 0 0 0 80 55 32 255 
0.587891 0.447266 0.560784 0 0 0 81 55 31 255 
0.587891 0.449219 0.560784 0 0 0 81 57 33 255 
0.587891 0.451172 0.552941 0 0 0 81 54 37 255 
0.587891 0.453125 0.552941 0 0 0 84 55 34 255 
0.587891 0.455078 0.54902 0 0 0 81 54 34 255 
